3
34.4209 31.5358 31.8132 32.0855 32.3508 
32.6076 32.8549 33.0909 33.3132 33.5199 
33.7095 33.8802 34.0313 34.1639 34.2795 
34.3806 34.4276 31.5336 31.8107 32.0824 
32.3471 32.6034 32.8502 33.0857 33.3075 
33.5139 33.7033 33.8738 34.0248 34.1574 
34.2729 34.374 34.4209 31.5198 31.7968 
32.0683 32.3324 32.5879 32.8338 33.0685 
33.2897 33.4956 33.6846 33.8548 34.0056 
34.1379 34.2533 34.3542 34.401 31.4897 
31.7666 32.0377 32.3015 32.5567 32.8023 
33.0368 33.2577 33.4634 33.6522 33.8223 
33.9729 34.1051 34.2203 34.3211 34.3679 
31.4441 31.7205 31.9914 32.2551 32.5103 
32.7561 32.9906 33.2117 33.4175 33.6063 
33.7764 33.927 34.0591 34.1742 34.2748 
34.3214 31.3829 31.6587 31.9292 32.1929 
32.4485 32.6947 32.9297 33.1513 33.3573 
33.5465 33.7168 33.8675 33.9997 34.1147 
34.2152 34.2618 31.3135 31.5887 31.8586 
32.1214 32.3761 32.6217 32.8563 33.0775 
33.2836 33.4729 33.6435 33.7944 33.9268 
34.0419 34.1424 34.1889 31.2265 31.4998 
31.768 32.0295 32.2832 32.528 32.7623 
32.9838 33.1906 33.3812 33.5531 33.7054 
33.839 33.955 34.0561 34.1029 31.1081 
31.3784 31.6439 31.9033 32.1559 32.4007 
32.6362 32.86 33.0702 33.2648 33.4406 
33.5964 33.7333 33.8523 33.9559 34.0037 
31.656 31.9054 32.1485 32.3853 32.6166 
32.8423 33.06 33.2668 33.4628 33.6474 
33.8162 33.967 34.1004 34.2145 34.3099 
34.3529 31.7729 32.025 32.2705 32.5092 
32.7413 32.9667 33.1829 33.3875 33.5807 
33.7623 33.9285 34.0767 34.207 34.3181 
34.4111 34.4531 31.8626 32.1166 32.3634 
32.6027 32.835 33.0603 33.2764 33.4806 
33.6732 33.8539 34.0192 34.1664 34.2956 
34.4058 34.4983 34.54 31.9318 32.1865 
32.4341 32.6744 32.9076 33.1336 33.3501 
33.5546 33.7472 33.928 34.0931 34.2402 
34.3692 34.4794 34.5718 34.6136 31.991 
32.2461 32.4944 32.7352 32.9686 33.1945 
33.4108 33.6151 33.8076 33.9882 34.1533 
34.3003 34.4293 34.5394 34.632 34.6738 
32.036 32.2915 32.5401 32.7812 33.0148 
33.2407 33.4571 33.6614 33.8538 34.0345 
34.1996 34.3467 34.4758 34.5861 34.6788 
34.7207 32.0667 32.3225 32.5714 32.8126 
33.0465 33.2727 33.4893 33.6938 33.8864 
34.0672 34.2325 34.3797 34.5089 34.6194 
34.7122 34.7542 32.0831 32.3388 32.5878 
32.8293 33.0635 33.2901 33.5072 33.7122 
33.9053 34.0864 34.2519 34.3993 34.5287 
34.6393 34.7323 34.7744 32.0876 32.3437 
32.5929 32.8345 33.0688 33.2957 33.513 
33.7182 33.9114 34.0927 34.2583 34.4058 
34.5353 34.6459 34.739 34.7811 32.0836 
32.3392 32.588 32.8294 33.0636 33.2902 
33.5073 33.7123 33.9053 34.0864 34.2519 
34.3993 34.5287 34.6393 34.7323 34.7744 
32.0678 32.3233 32.5719 32.813 33.0467 
33.2729 33.4894 33.6939 33.8865 34.0673 
34.2325 34.3797 34.5089 34.6194 34.7122 
34.7542 32.0371 32.2923 32.5407 32.7816 
33.015 33.2409 33.4571 33.6614 33.8539 
34.0345 34.1996 34.3467 34.4758 34.5861 
34.6788 34.7207 31.9918 32.2467 32.4948 
32.7354 32.9688 33.1946 33.4109 33.6152 
33.8076 33.9882 34.1533 34.3003 34.4293 
34.5394 34.632 34.6738 31.9324 32.1868 
32.4344 32.6746 32.9078 33.1337 33.3501 
33.5546 33.7472 33.928 34.0932 34.2402 
34.3692 34.4794 34.5718 34.6136 31.8627 
32.1167 32.3635 32.6027 32.835 33.0603 
33.2764 33.4806 33.6732 33.8539 34.0192 
34.1664 34.2956 34.4058 34.4983 34.54 
31.7729 32.025 32.2706 32.5092 32.7413 
32.9667 33.1829 33.3875 33.5807 33.7623 
33.9285 34.0767 34.207 34.3181 34.4111 
34.4531 31.656 31.9054 32.1485 32.3853 
32.6166 32.8423 33.06 33.2668 33.4628 
33.6474 33.8162 33.967 34.1004 34.2145 
34.3099 34.3529 32.2026 32.4312 32.6512 
32.8644 33.0743 33.2828 33.484 33.674 
33.8568 34.0345 34.1971 34.3427 34.4736 
34.5821 34.6659 34.702 32.318 32.5493 
32.7716 32.9866 33.1972 33.4048 33.6044 
33.7922 33.9726 34.1482 34.3095 34.4537 
34.5814 34.6866 34.7681 34.8032 32.4103 
32.6437 32.8667 33.0815 33.2915 33.4983 
33.6974 33.8849 34.0648 34.2399 34.4008 
34.5442 34.6708 34.7751 34.8561 34.891 
32.4798 32.7136 32.9375 33.1536 33.3646 
33.572 33.7716 33.9593 34.1394 34.3145 
34.4755 34.6188 34.7452 34.8494 34.9304 
34.9654 32.5375 32.7716 32.9966 33.2136 
33.4251 33.6327 33.8322 34.02 34.2 
34.3752 34.5362 34.6795 34.8058 34.9101 
34.9911 35.0262 32.5823 32.8167 33.0421 
33.2595 33.4713 33.6791 33.8787 34.0665 
34.2467 34.4219 34.583 34.7264 34.8529 
34.9572 35.0385 35.0736 32.6137 32.8483 
33.0739 33.2915 33.5036 33.7115 33.9114 
34.0994 34.2797 34.4551 34.6163 34.7599 
34.8864 34.9909 35.0722 35.1075 32.6317 
32.8663 33.0918 33.3094 33.5216 33.7298 
33.9301 34.1184 34.299 34.4746 34.636 
34.7797 34.9064 35.011 35.0925 35.1278 
32.6376 32.8728 33.0985 33.3158 33.5277 
33.7359 33.9362 34.1246 34.3053 34.481 
34.6426 34.7864 34.9131 35.0177 35.0993 
35.1346 32.632 32.8666 33.092 33.3095 
33.5217 33.7299 33.9301 34.1184 34.299 
34.4746 34.636 34.7798 34.9064 35.011 
35.0925 35.1278 32.6146 32.8489 33.0743 
33.2918 33.5037 33.7116 33.9115 34.0994 
34.2797 34.4551 34.6163 34.7599 34.8864 
34.9909 35.0722 35.1075 32.5832 32.8173 
33.0425 33.2598 33.4715 33.6792 33.8788 
34.0666 34.2467 34.4219 34.583 34.7264 
34.8529 34.9572 35.0385 35.0736 32.5381 
32.772 32.9969 33.2138 33.4253 33.6328 
33.8323 34.02 34.2001 34.3752 34.5362 
34.6795 34.8058 34.9101 34.9911 35.0262 
32.4803 32.7139 32.9377 33.1538 33.3647 
33.5721 33.7716 33.9593 34.1394 34.3145 
34.4755 34.6188 34.7452 34.8494 34.9304 
34.9654 32.4104 32.6438 32.8667 33.0815 
33.2915 33.4983 33.6974 33.8849 34.0648 
34.2399 34.4008 34.5442 34.6708 34.7751 
34.8561 34.891 32.3181 32.5493 32.7716 
32.9866 33.1972 33.4048 33.6044 33.7922 
33.9726 34.1482 34.3095 34.4537 34.5814 
34.6866 34.7681 34.8032 32.2026 32.4312 
32.6512 32.8644 33.0743 33.2828 33.484 
33.674 33.8568 34.0345 34.1971 34.3427 
34.4736 34.5821 34.6659 34.702 32.7515 
32.9596 33.1538 33.3405 33.5277 33.7234 
33.9095 34.0802 34.2499 34.427 34.583 
34.7224 34.8553 34.9573 35.0243 35.0511 
32.8653 33.0761 33.2728 33.4616 33.6497 
33.8432 34.0277 34.1964 34.3639 34.5394 
34.696 34.8358 34.9644 35.0627 35.1273 
35.1534 32.9604 33.1741 33.37 33.5575 
33.7442 33.9363 34.1204 34.2888 34.4559 
34.6312 34.7881 34.9274 35.0546 35.152 
35.2162 35.2421 33.03 33.2435 33.4407 
33.6303 33.8181 34.0106 34.195 34.3637 
34.531 34.7065 34.8637 35.0029 35.1298 
35.227 35.2912 35.3172 33.0859 33.2995 
33.4991 33.6899 33.8785 34.0713 34.2558 
34.4246 34.592 34.7677 34.925 35.0642 
35.191 35.2883 35.3527 35.3786 33.1306 
33.3443 33.5444 33.7359 33.9249 34.1179 
34.3026 34.4715 34.6391 34.8149 34.9724 
35.1117 35.2386 35.336 35.4005 35.4265 
33.1626 33.3765 33.5768 33.7684 33.9575 
34.1508 34.3357 34.5048 34.6725 34.8485 
35.0061 35.1455 35.2725 35.37 35.4346 
35.4607 33.1821 33.3962 33.5958 33.7872 
33.9764 34.1698 34.355 34.5244 34.6922 
34.8684 35.0261 35.1658 35.2928 35.3904 
35.4551 35.4812 33.1893 33.4044 33.604 
33.7944 33.983 34.1762 34.3614 34.5308 
34.6987 34.875 35.0328 35.1725 35.2996 
35.3972 35.4619 35.488 33.1824 33.3964 
33.5959 33.7873 33.9765 34.1698 34.355 
34.5244 34.6922 34.8684 35.0261 35.1658 
35.2928 35.3904 35.4551 35.4812 33.1632 
33.3769 33.577 33.7686 33.9577 34.1509 
34.3358 34.5048 34.6725 34.8485 35.0061 
35.1456 35.2725 35.37 35.4346 35.4607 
33.1312 33.3447 33.5447 33.7361 33.925 
34.118 34.3027 34.4716 34.6391 34.8149 
34.9724 35.1117 35.2386 35.336 35.4005 
35.4265 33.0863 33.2999 33.4992 33.6901 
33.8786 34.0713 34.2559 34.4246 34.592 
34.7677 34.925 35.0643 35.191 35.2883 
35.3527 35.3786 33.0304 33.2437 33.4409 
33.6304 33.8182 34.0106 34.1951 34.3637 
34.531 34.7065 34.8637 35.0029 35.1298 
35.227 35.2912 35.3172 32.9606 33.1741 
33.3701 33.5575 33.7442 33.9364 34.1204 
34.2888 34.4559 34.6312 34.7881 34.9274 
35.0546 35.152 35.2162 35.2421 32.8654 
33.0762 33.2728 33.4616 33.6497 33.8432 
34.0277 34.1964 34.3639 34.5394 34.696 
34.8358 34.9644 35.0627 35.1273 35.1534 
32.7515 32.9596 33.1538 33.3405 33.5277 
33.7234 33.9095 34.0802 34.2499 34.427 
34.583 34.7224 34.8553 34.9573 35.0243 
35.0511 33.3097 33.4965 33.6585 33.8129 
33.9723 34.1703 34.3391 34.4831 34.6357 
34.8298 34.9733 35.1031 35.2543 35.3443 
35.3855 35.4002 33.4213 33.6119 33.7761 
33.9331 34.095 34.2873 34.4555 34.5974 
34.7475 34.9398 35.087 35.2213 35.3646 
35.4503 35.4893 35.5035 33.5199 33.715 
33.875 34.0298 34.1894 34.3794 34.5479 
34.6896 34.839 35.0317 35.1803 35.3144 
35.4555 35.5404 35.579 35.5931 33.5892 
33.783 33.945 34.1036 34.2642 34.4541 
34.6231 34.7651 34.9145 35.1077 35.257 
35.3909 35.5314 35.6162 35.6549 35.6689 
33.6425 33.8359 34.0035 34.1633 34.3247 
34.5149 34.6842 34.8263 34.9759 35.1694 
35.319 35.453 35.5933 35.6782 35.7169 
35.731 33.6871 33.8801 34.0489 34.2095 
34.3713 34.5618 34.7313 34.8737 35.0234 
35.2171 35.367 35.501 35.6413 35.7264 
35.7652 35.7794 33.7197 33.9128 34.0816 
34.2425 34.4045 34.5952 34.7648 34.9073 
35.0572 35.2511 35.4011 35.5353 35.6757 
35.7608 35.7997 35.8139 33.7409 33.9344 
34.1013 34.2619 34.424 34.6148 34.7847 
34.9274 35.0773 35.2714 35.4215 35.5558 
35.6962 35.7814 35.8204 35.8346 33.7489 
33.9446 34.1108 34.2692 34.4307 34.6214 
34.7913 34.934 35.084 35.2781 35.4283 
35.5626 35.7031 35.7883 35.8273 35.8415 
33.741 33.9345 34.1014 34.2619 34.424 
34.6148 34.7847 34.9274 35.0773 35.2714 
35.4215 35.5558 35.6962 35.7814 35.8204 
35.8346 33.72 33.913 34.0817 34.2425 
34.4045 34.5952 34.7649 34.9074 35.0572 
35.2511 35.4011 35.5353 35.6757 35.7608 
35.7997 35.8139 33.6874 33.8802 34.049 
34.2096 34.3714 34.5619 34.7313 34.8737 
35.0234 35.2171 35.367 35.501 35.6413 
35.7264 35.7652 35.7794 33.6427 33.836 
34.0036 34.1634 34.3247 34.5149 34.6842 
34.8263 34.9759 35.1694 35.319 35.453 
35.5933 35.6782 35.7169 35.731 33.5894 
33.7831 33.945 34.1036 34.2642 34.4541 
34.6231 34.7651 34.9145 35.1077 35.257 
35.3909 35.5314 35.6162 35.6549 35.6689 
33.52 33.715 33.875 34.0298 34.1894 
34.3794 34.5479 34.6896 34.839 35.0317 
35.1803 35.3144 35.4555 35.5404 35.579 
35.5931 33.4213 33.6119 33.7761 33.9332 
34.095 34.2873 34.4555 34.5974 34.7475 
34.9398 35.087 35.2213 35.3646 35.4503 
35.4893 35.5035 33.3097 33.4965 33.6585 
33.8129 33.9723 34.1703 34.3391 34.4831 
34.6357 34.8298 34.9733 35.1031 35.2543 
35.3443 35.3855 35.4002 33.9431 34.0531 
34.168 34.283 34.3979 34.6957 34.7776 
34.8808 34.9968 35.2546 35.3657 35.4768 
35.7494 35.7494 35.7494 35.7494 34.0421 
34.1677 34.2841 34.4011 34.5265 34.7969 
34.8915 34.9925 35.0988 35.3597 35.4799 
35.6073 35.8537 35.8538 35.8537 35.8537 
34.128 34.2733 34.383 34.4976 34.6198 
34.8847 34.9837 35.0846 35.1874 35.4508 
35.5749 35.7024 35.9441 35.9442 35.9442 
35.9441 34.2007 34.3491 34.4524 34.5734 
34.6953 34.959 35.0596 35.1607 35.2624 
35.5272 35.6529 35.7799 36.0207 36.0208 
36.0207 36.0207 34.2603 34.3909 34.5114 
34.6334 34.7559 35.0199 35.121 35.2223 
35.3238 35.5895 35.7158 35.8426 36.0834 
36.0835 36.0835 36.0834 34.3066 34.4334 
34.557 34.68 34.8029 35.0673 35.1687 
35.2701 35.3716 35.6377 35.7644 35.8913 
36.1322 36.1322 36.1322 36.1322 34.3397 
34.4668 34.5901 34.7132 34.8364 35.1011 
35.2026 35.3041 35.4057 35.6721 35.799 
35.9259 36.1671 36.1671 36.1671 36.1671 
34.3596 34.4912 34.6095 34.733 34.8565 
35.1214 35.223 35.3246 35.4262 35.6928 
35.8198 35.9468 36.188 36.188 36.188 
36.188 34.3662 34.5025 34.6186 34.7398 
34.8632 35.1282 35.2298 35.3314 35.433 
35.6997 35.8267 35.9537 36.195 36.195 
36.195 36.195 34.3596 34.4912 34.6095 
34.733 34.8565 35.1214 35.223 35.3246 
35.4262 35.6928 35.8198 35.9468 36.188 
36.188 36.188 36.188 34.3397 34.4668 
34.5901 34.7132 34.8364 35.1011 35.2026 
35.3041 35.4057 35.6721 35.799 35.9259 
36.1671 36.1671 36.1671 36.1671 34.3066 
34.4334 34.557 34.68 34.8029 35.0673 
35.1687 35.2701 35.3716 35.6377 35.7644 
35.8913 36.1322 36.1322 36.1322 36.1322 
34.2603 34.3909 34.5114 34.6334 34.7559 
35.0199 35.121 35.2223 35.3238 35.5895 
35.7158 35.8427 36.0834 36.0835 36.0835 
36.0834 34.2007 34.3491 34.4524 34.5734 
34.6953 34.959 35.0596 35.1607 35.2624 
35.5272 35.6529 35.7799 36.0207 36.0208 
36.0207 36.0207 34.128 34.2733 34.383 
34.4976 34.6198 34.8847 34.9837 35.0846 
35.1874 35.4508 35.5749 35.7024 35.9441 
35.9442 35.9442 35.9441 34.0421 34.1677 
34.2841 34.4011 34.5265 34.7969 34.8915 
34.9925 35.0988 35.3597 35.4799 35.6073 
35.8537 35.8538 35.8537 35.8537 33.9431 
34.0531 34.168 34.283 34.3979 34.6957 
34.7776 34.8808 34.9968 35.2546 35.3657 
35.4768 35.7494 35.7494 35.7494 35.7494 

6.89189 7.14617 7.39997 7.65343 7.9067 8.15994 
8.41333 8.66706 8.92132 9.1763 9.43218 
9.68906 9.94703 10.2061 10.4661 10.7271 
6.89044 7.14459 7.39826 7.65157 7.90468 
8.15776 8.41099 8.66456 8.91869 9.17359 
9.42943 9.68635 9.94443 10.2037 10.464 
10.7252 6.88959 7.14326 7.39642 7.6492 
7.90176 8.15427 8.40694 8.65998 8.91365 
9.16818 9.4238 9.68067 9.93887 10.1984 
10.4591 10.7209 6.88676 7.13978 7.39222 
7.64422 7.89596 8.14762 8.39944 8.65168 
8.90464 9.15864 9.41396 9.67082 9.92933 
10.1894 10.451 10.7138 6.88189 7.13403 
7.3855 7.63644 7.88704 8.13751 8.38813 
8.63923 8.89121 9.14447 9.39943 9.65638 
9.91545 10.1766 10.4395 10.7037 6.88141 
7.13336 7.38465 7.63543 7.88591 8.1363 
8.38692 8.63812 8.8903 9.14387 9.39918 
9.65647 9.91581 10.1771 10.44 10.7043 
6.88308 7.1351 7.38646 7.63731 7.88781 
8.13819 8.38873 8.63976 8.89167 9.14488 
9.39978 9.65668 9.91571 10.1768 10.4396 
10.7039 6.88921 7.14199 7.39421 7.646 
7.89754 8.14902 8.40067 8.65276 8.90558 
9.15946 9.41467 9.67143 9.92984 10.1899 
10.4514 10.7141 6.89343 7.14674 7.39954 
7.65199 7.90424 8.15646 8.40886 8.66167 
8.91512 9.16946 9.4249 9.68161 9.93968 
10.1991 10.4597 10.7214 6.89582 7.14946 
7.40263 7.65547 7.90815 8.16083 8.41369 
8.66693 8.92076 9.17538 9.43097 9.68768 
9.94556 10.2046 10.4648 10.7259 6.89671 
7.15051 7.40385 7.65689 7.90977 8.16265 
8.41571 8.66914 8.92313 9.17787 9.43353 
9.69022 9.94802 10.2069 10.4668 10.7277 
6.78166 7.03902 7.29616 7.55318 7.8102 
8.06737 8.32483 8.58273 8.84124 9.10049 
9.36062 9.6217 9.88378 10.1468 10.4108 
10.6756 6.78021 7.03746 7.29447 7.55137 
7.80826 8.0653 8.32263 8.58042 8.83884 
9.09804 9.35816 9.6193 9.88149 10.1447 
10.4089 10.6739 6.7793 7.03612 7.29268 
7.5491 7.80551 8.06206 8.31892 8.57628 
8.83433 9.09326 9.35322 9.61434 9.87664 
10.1401 10.4046 10.6701 6.77645 7.03267 
7.28859 7.54433 7.80003 8.05586 8.31203 
8.56875 8.82627 9.08481 9.34459 9.60574 
9.86832 10.1323 10.3975 10.6637 6.77162 
7.02704 7.28209 7.53691 7.79164 8.04649 
8.30169 8.55754 8.81432 9.07236 9.33193 
9.59323 9.85631 10.1211 10.3873 10.6548 
6.77119 7.02646 7.28137 7.53607 7.79072 
8.04555 8.30079 8.55675 8.81373 9.07203 
9.33188 9.59345 9.85675 10.1217 10.388 
10.6554 6.77275 7.02808 7.28303 7.53775 
7.7924 8.04716 8.30229 8.55806 8.81479 
9.07277 9.33228 9.59353 9.85657 10.1213 
10.3875 10.6549 6.77879 7.03481 7.29053 
7.54607 7.80159 8.05725 8.31326 8.56984 
8.82722 9.08564 9.3453 9.60635 9.86884 
10.1327 10.3978 10.664 6.78297 7.03947 
7.29572 7.55184 7.80796 8.06424 8.32085 
8.57797 8.83581 9.09455 9.35434 9.61529 
9.87746 10.1408 10.4052 10.6706 6.78536 
7.04216 7.29874 7.5552 7.81169 8.06835 
8.32533 8.58279 8.84091 9.09985 9.35973 
9.62064 9.88263 10.1457 10.4097 10.6746 
6.78626 7.04321 7.29994 7.55658 7.81324 
8.07006 8.32721 8.58482 8.84306 9.10207 
9.36199 9.62288 9.88478 10.1477 10.4115 
10.6762 6.6732 6.93369 7.19418 7.45475 
7.71551 7.97656 8.23802 8.50002 8.76269 
9.02613 9.29044 9.55567 9.82182 10.0889 
10.3567 10.6252 6.67177 6.93215 7.19254 
7.453 7.71365 7.9746 8.23597 8.4979 
8.76051 9.02393 9.28825 9.55354 9.81979 
10.087 10.355 10.6237 6.67086 6.93086 
7.19084 7.45089 7.71112 7.97166 8.23263 
8.49421 8.75652 9.01973 9.28394 9.54921 
9.81557 10.083 10.3513 10.6204 6.66808 
6.92755 7.18696 7.44642 7.70605 7.96599 
8.2264 8.48747 8.74938 9.0123 9.27639 
9.54172 9.80832 10.0761 10.345 10.6147 
6.66342 6.92218 7.18084 7.43951 7.69832 
7.95746 8.21711 8.47751 8.73888 9.00145 
9.26543 9.53091 9.79793 10.0664 10.3361 
10.6068 6.66304 6.92169 7.18024 7.43883 
7.69761 7.95675 8.21646 8.47698 8.73853 
9.00134 9.26556 9.53129 9.7985 10.0671 
10.3369 10.6076 6.66451 6.92318 7.18175 
7.44034 7.69907 7.95813 8.21771 8.47803 
8.73934 9.00186 9.26578 9.53121 9.79819 
10.0666 10.3363 10.6069 6.67032 6.92961 
7.18885 7.44813 7.70758 7.96736 8.22762 
8.48854 8.75032 9.01312 9.2771 9.54233 
9.80884 10.0766 10.3453 10.615 6.67438 
6.93411 7.19381 7.45358 7.71353 7.97381 
8.23454 8.49589 8.758 9.02101 9.28505 
9.55017 9.81639 10.0836 10.3518 10.6209 
6.67672 6.93671 7.1967 7.45677 7.71704 
7.97762 8.23865 8.50026 8.76258 9.02573 
9.28981 9.55488 9.82094 10.0879 10.3558 
10.6244 6.67761 6.93774 7.19786 7.45808 
7.71849 7.97922 8.24037 8.50209 8.7645 
9.02771 9.2918 9.55684 9.82282 10.0897 
10.3574 10.6258 6.56613 6.8298 7.09367 
7.35781 7.62228 7.88719 8.15261 8.41866 
8.68544 8.95302 9.22147 9.49083 9.76105 
10.0321 10.3038 10.5761 6.56471 6.8283 
7.09208 7.35614 7.62053 7.88536 8.15073 
8.41673 8.68348 8.95106 9.21954 9.48895 
9.75927 10.0304 10.3023 10.5747 6.56386 
6.8271 7.09053 7.35422 7.61825 7.88273 
8.14777 8.41348 8.67999 8.9474 9.2158 
9.4852 9.75561 10.0269 10.299 10.5718 
6.56123 6.824 7.08694 7.35012 7.61364 
7.87763 8.14221 8.40753 8.67373 8.94093 
9.20924 9.47871 9.74931 10.021 10.2935 
10.5668 6.55685 6.81901 7.0813 7.34382 
7.60668 7.87003 8.13402 8.39883 8.66463 
8.93159 9.19983 9.46943 9.74037 10.0125 
10.2858 10.5598 6.55654 6.8186 7.08082 
7.34328 7.60613 7.8695 8.13357 8.39851 
8.6645 8.93168 9.20016 9.46999 9.7411 
10.0134 10.2867 10.5607 6.5579 6.81998 
7.08219 7.34463 7.60741 7.87069 8.13461 
8.39935 8.66508 8.93198 9.20018 9.46973 
9.74062 10.0127 10.2859 10.5599 6.56339 
6.826 7.08877 7.35178 7.61515 7.87898 
8.14341 8.40859 8.67465 8.94174 9.20994 
9.47931 9.74982 10.0214 10.2939 10.5671 
6.56727 6.83025 7.09342 7.35684 7.62062 
7.88485 8.14965 8.41514 8.68145 8.94867 
9.21689 9.48614 9.75641 10.0276 10.2996 
10.5723 6.5695 6.83273 7.09615 7.35983 
7.62386 7.88834 8.15337 8.41906 8.68552 
8.95284 9.22108 9.49027 9.7604 10.0314 
10.3031 10.5754 6.57037 6.83372 7.09725 
7.36105 7.6252 7.88979 8.15493 8.4207 
8.68722 8.95457 9.22282 9.49198 9.76203 
10.0329 10.3045 10.5767 6.4601 6.72702 
6.99431 7.26203 7.53023 7.79898 8.06836 
8.33843 8.60928 8.88099 9.15359 9.42708 
9.7014 9.97645 10.2521 10.5281 6.45871 
6.72556 6.99279 7.26045 7.5286 7.7973 
8.06664 8.33669 8.60754 8.87925 9.15189 
9.42544 9.69985 9.97501 10.2508 10.5269 
6.45796 6.7245 6.99142 7.25876 7.52659 
7.795 8.06406 8.33388 8.60453 8.87611 
9.14867 9.42222 9.69669 9.97198 10.2479 
10.5243 6.45554 6.72167 6.98816 7.25507 
7.52249 7.79049 8.0592 8.3287 8.59912 
8.87054 9.14304 9.41663 9.69126 9.96681 
10.2431 10.5199 6.45153 6.71714 6.98309 
7.24947 7.51636 7.78387 8.05213 8.32126 
8.59139 8.86263 9.13508 9.40876 9.68362 
9.95955 10.2364 10.5138 6.45128 6.71682 
6.98271 7.24905 7.51594 7.7835 8.05184 
8.32111 8.59144 8.86292 9.13562 9.40953 
9.68457 9.96061 10.2374 10.5148 6.45255 
6.71808 6.98396 7.25026 7.51707 7.78451 
8.0527 8.32176 8.59183 8.86302 9.13541 
9.40904 9.68387 9.95976 10.2365 10.5139 
6.45764 6.72362 6.98995 7.2567 7.52395 
7.79181 8.06036 8.32973 8.60002 8.87133 
9.14372 9.41722 9.69176 9.96723 10.2435 
10.5202 6.46127 6.72757 6.99423 7.26132 
7.5289 7.79707 8.0659 8.33549 8.60595 
8.87735 9.14974 9.42313 9.69747 9.97264 
10.2485 10.5248 6.46338 6.72989 6.99676 
7.26406 7.53186 7.80022 8.06922 8.33897 
8.60953 8.88099 9.15339 9.42672 9.70094 
9.97594 10.2515 10.5276 6.46421 6.73081 
6.99779 7.26519 7.53308 7.80152 8.07061 
8.34042 8.61102 8.8825 9.15489 9.4282 
9.70236 9.97726 10.2528 10.5287 6.35483 
6.62505 6.89582 7.16716 7.4391 7.71171 
7.98502 8.2591 8.53403 8.80986 9.08663 
9.36431 9.64281 9.92195 10.2015 10.4813 
6.35346 6.62364 6.89437 7.16567 7.43759 
7.71018 7.98347 8.25756 8.53249 8.80835 
9.08516 9.3629 9.64147 9.9207 10.2004 
10.4802 6.35284 6.62275 6.8932 7.16422 
7.43587 7.70821 7.98128 8.25517 8.52995 
8.8057 9.08244 9.36017 9.63878 9.91811 
10.1979 10.478 6.35068 6.62023 6.89032 
7.16099 7.4323 7.70431 7.97711 8.25076 
8.52536 8.80099 9.07768 9.35543 9.63415 
9.91366 10.1937 10.4741 6.34711 6.61623 
6.88589 7.15614 7.42705 7.69871 7.97119 
8.24459 8.51898 8.79447 9.07109 9.34886 
9.62771 9.90748 10.1879 10.4688 6.34692 
6.61598 6.88559 7.15581 7.42674 7.69844 
7.97103 8.24458 8.5192 8.79495 9.07187 
9.34989 9.62893 9.90879 10.1892 10.47 
6.3481 6.61716 6.88674 7.15691 7.42775 
7.69933 7.97174 8.24507 8.51941 8.79484 
9.07141 9.34914 9.62794 9.90768 10.1881 
10.4689 6.35273 6.62214 6.89207 7.16257 
7.43372 7.70559 7.97824 8.25176 8.52624 
8.80175 9.07834 9.356 9.63463 9.91407 
10.1941 10.4744 6.35607 6.62575 6.89594 
7.16672 7.43812 7.71021 7.98306 8.25673 
8.53132 8.80688 9.08347 9.36105 9.63953 
9.91874 10.1985 10.4784 6.35804 6.62788 
6.89825 7.1692 7.44076 7.713 7.98598 
8.25976 8.53442 8.81002 9.0866 9.36414 
9.64252 9.92159 10.2011 10.4809 6.35881 
6.62874 6.89919 7.17022 7.44186 7.71416 
7.9872 8.26102 8.5357 8.81132 9.08789 
9.36539 9.64373 9.92272 10.2022 10.4818 
6.25003 6.52364 6.79793 7.07292 7.34865 
7.62513 7.90238 8.18047 8.45947 8.73946 
9.02047 9.30244 9.58522 9.86856 10.1522 
10.4357 6.24869 6.52228 6.79656 7.07155 
7.34727 7.62375 7.90102 8.17912 8.45815 
8.73817 9.01922 9.30124 9.58409 9.8675 
10.1512 10.4348 6.24823 6.52157 6.7956 
7.07035 7.34585 7.62212 7.8992 8.17716 
8.45606 8.73599 9.01698 9.29898 9.58184 
9.86531 10.1491 10.4328 6.24637 6.51941 
6.79314 7.06759 7.34282 7.61885 7.89573 
8.17352 8.4523 8.73213 9.01306 9.29504 
9.57795 9.86154 10.1455 10.4295 6.24329 
6.51599 6.78939 7.06354 7.3385 7.61431 
7.891 8.16863 8.44727 8.72698 9.0078 
9.28971 9.57262 9.85634 10.1405 10.4249 
6.24316 6.51579 6.78915 7.06328 7.33824 
7.6141 7.89091 8.16873 8.44764 8.72768 
9.00885 9.29107 9.57418 9.85795 10.1421 
10.4263 6.24426 6.51689 6.79021 7.06429 
7.33917 7.6149 7.89153 8.1691 8.44768 
8.72733 9.0081 9.28997 9.57284 9.85652 
10.1407 10.425 6.24839 6.52127 6.79484 
7.06913 7.3442 7.62008 7.89682 8.17447 
8.45313 8.73285 9.01368 9.29558 9.5784 
9.86192 10.1458 10.4298 6.25141 6.52451 
6.79828 7.07277 7.34802 7.62405 7.90091 
8.17865 8.45736 8.73712 9.01796 9.29981 
9.58255 9.86591 10.1496 10.4333 6.25321 
6.52644 6.80035 7.07498 7.35034 7.62648 
7.90342 8.18123 8.45999 8.73976 9.02059 
9.30242 9.58508 9.86834 10.1519 10.4354 
6.25392 6.52722 6.8012 7.07588 7.3513 
7.62748 7.90446 8.1823 8.46107 8.74085 
9.02166 9.30346 9.58609 9.8693 10.1528 
10.4362 6.14548 6.42252 6.70039 6.9791 
7.25866 7.53905 7.82026 8.10233 8.38541 
8.6696 8.95495 9.24136 9.5286 9.81632 
10.1041 10.3914 6.14416 6.42122 6.69911 
6.97784 7.25743 7.53784 7.81908 8.10119 
8.3843 8.66853 8.95392 9.24038 9.52767 
9.81544 10.1032 10.3906 6.14388 6.42072 
6.69838 6.9769 7.25629 7.53654 7.81764 
8.09965 8.38267 8.66682 8.95215 9.23856 
9.52584 9.81363 10.1015 10.389 6.14236 
6.41893 6.69634 6.97464 7.25383 7.53391 
7.81489 8.09679 8.37973 8.66381 8.94905 
9.2354 9.52265 9.81048 10.0985 10.3861 
6.13979 6.41611 6.69329 6.9714 7.25046 
7.53046 7.81138 8.09325 8.37612 8.66005 
8.94509 9.23123 9.51836 9.80618 10.0943 
10.3822 6.13971 6.41596 6.69309 6.97117 
7.25022 7.53027 7.81131 8.0934 8.3766 
8.66098 8.94649 9.23302 9.52034 9.80816 
10.0961 10.3838 6.14076 6.41699 6.69409 
6.97212 7.2511 7.53102 7.81188 8.09368 
8.37649 8.66038 8.94537 9.23147 9.51856 
9.80635 10.0944 10.3823 6.14435 6.42075 
6.69799 6.97612 7.25515 7.53508 7.81591 
8.09769 8.38051 8.66448 8.94963 9.23589 
9.52307 9.81084 10.0988 10.3864 6.14703 
6.4236 6.70098 6.97924 7.25837 7.53838 
7.81925 8.10105 8.38389 8.66788 8.95306 
9.23934 9.5265 9.81419 10.102 10.3894 
6.14864 6.42532 6.70281 6.98115 7.26037 
7.54043 7.82135 8.10318 8.38603 8.67002 
8.9552 9.24148 9.5286 9.81623 10.1039 
10.3912 6.14929 6.42601 6.70355 6.98194 
7.26119 7.54128 7.82222 8.10405 8.3869 
8.67089 8.95606 9.24231 9.52941 9.817 
10.1046 10.3918 6.04095 6.32147 6.60296 
6.88547 7.16895 7.4533 7.73845 8.02447 
8.31159 8.60003 8.88988 9.18096 9.47294 
9.76528 10.0574 10.3486 6.03966 6.32023 
6.60177 6.88433 7.16786 7.45226 7.73746 
8.02354 8.31071 8.5992 8.88908 9.1802 
9.4722 9.76459 10.0567 10.348 6.03958 
6.31993 6.60127 6.88365 7.16702 7.4513 
7.73641 8.02242 8.30954 8.59797 8.88778 
9.17882 9.47077 9.76313 10.0553 10.3466 
6.0384 6.31852 6.59966 6.88187 7.16512 
7.44931 7.73439 8.02038 8.30747 8.59582 
8.8855 9.1764 9.46824 9.76056 10.0528 
10.3442 6.03637 6.31632 6.59733 6.87947 
7.16272 7.44699 7.73218 8.01828 8.30537 
8.59353 8.88285 9.17335 9.46489 9.75707 
10.0493 10.3409 6.03633 6.3162 6.59714 
6.87922 7.16245 7.44674 7.73205 8.0184 
8.30593 8.59472 8.88472 9.17572 9.46743 
9.7595 10.0514 10.3426 6.03732 6.31718 
6.5981 6.88016 7.16332 7.44752 7.73264 
8.01868 8.30571 8.59383 8.88311 9.17358 
9.46508 9.75723 10.0494 10.341 6.04037 
6.32031 6.60125 6.88329 7.16636 7.4504 
7.73534 8.02121 8.30819 8.59644 8.88603 
9.17686 9.46863 9.76089 10.053 10.3444 
6.04271 6.32275 6.60379 6.88588 7.16899 
7.45302 7.73791 8.02372 8.31067 8.59894 
8.88861 9.17953 9.47137 9.76364 10.0557 
10.3469 6.04412 6.32424 6.60535 6.8875 
7.17065 7.45469 7.73958 8.02538 8.31231 
8.60058 8.89026 9.18121 9.47305 9.7653 
10.0573 10.3485 6.04469 6.32485 6.60599 
6.88817 7.17133 7.45539 7.74027 8.02606 
8.31297 8.60122 8.8909 9.18184 9.47368 
9.76591 10.0579 10.349 -1.41737 -1.41491 -1.42176 -1.43078 -1.4398 -1.44882 
-1.45834 -1.46971 -1.4816 -1.47956 -1.48715 
-1.49643 -1.5057 -1.51498 -1.52426 -1.53354 
-1.13406 -1.1321 -1.13757 -1.14479 -1.15201 
-1.15922 -1.16684 -1.17594 -1.18545 -1.18382 
-1.18989 -1.19731 -1.20474 -1.21216 -1.21959 
-1.22701 -0.850644 -0.849166 -0.853277 -0.858689 
-0.864102 -0.869515 -0.875228 -0.882051 -0.889191 
-0.887963 -0.892519 -0.898087 -0.903655 -0.909224 
-0.914792 -0.920361 -0.567141 -0.566156 -0.568897 
-0.572506 -0.576114 -0.579723 -0.583533 -0.588081 
-0.592841 -0.592023 -0.595061 -0.598773 -0.602485 
-0.606198 -0.60991 -0.613623 -0.283584 -0.283092 
-0.284462 -0.286267 -0.288071 -0.289876 -0.29178 
-0.294055 -0.296435 -0.296026 -0.297545 -0.299401 
-0.301257 -0.303114 -0.30497 -0.306826 0 
0 0 0 0 0 
0 0 0 0 0 
0 0 0 0 0 
0.283584 0.283092 0.284462 0.286267 0.288071 
0.289876 0.29178 0.294055 0.296435 0.296026 
0.297545 0.299401 0.301257 0.303114 0.30497 
0.306826 0.567141 0.566156 0.568897 0.572506 
0.576114 0.579723 0.583533 0.588081 0.592841 
0.592023 0.595061 0.598773 0.602485 0.606198 
0.60991 0.613623 0.850644 0.849166 0.853277 
0.858689 0.864102 0.869515 0.875228 0.882051 
0.889191 0.887963 0.892519 0.898087 0.903655 
0.909224 0.914792 0.920361 1.13406 1.1321 
1.13757 1.14479 1.15201 1.15922 1.16684 
1.17594 1.18545 1.18382 1.18989 1.19731 
1.20474 1.21216 1.21959 1.22701 1.41737 
1.41491 1.42176 1.43078 1.4398 1.44882 
1.45834 1.46971 1.4816 1.47956 1.48715 
1.49643 1.5057 1.51498 1.52426 1.53354 
-1.43306 -1.43102 -1.43765 -1.44632 -1.45498 
-1.46365 -1.47287 -1.48415 -1.49542 -1.4937 
-1.50098 -1.50983 -1.51868 -1.52753 -1.53638 
-1.54523 -1.14661 -1.14498 -1.15029 -1.15722 
-1.16416 -1.17109 -1.17847 -1.18749 -1.19651 
-1.19513 -1.20096 -1.20804 -1.21512 -1.2222 
-1.22928 -1.23636 -0.860056 -0.85883 -0.862814 
-0.868015 -0.873215 -0.878414 -0.883949 -0.890716 
-0.897484 -0.896452 -0.900819 -0.90613 -0.911441 
-0.916752 -0.922064 -0.927376 -0.573417 -0.572599 
-0.575256 -0.578723 -0.58219 -0.585657 -0.589347 
-0.593858 -0.59837 -0.597683 -0.600594 -0.604135 
-0.607676 -0.611217 -0.614759 -0.6183 -0.286722 
-0.286313 -0.287642 -0.289375 -0.291109 -0.292842 
-0.294688 -0.296943 -0.2992 -0.298856 -0.300312 
-0.302082 -0.303853 -0.305623 -0.307394 -0.309165 
0 0 0 0 0 
0 0 0 0 0 
0 0 0 0 0 
0 0.286722 0.286313 0.287642 0.289375 
0.291109 0.292842 0.294688 0.296943 0.2992 
0.298856 0.300312 0.302082 0.303853 0.305623 
0.307394 0.309165 0.573417 0.572599 0.575256 
0.578723 0.58219 0.585657 0.589347 0.593858 
0.59837 0.597683 0.600594 0.604135 0.607676 
0.611217 0.614759 0.6183 0.860056 0.85883 
0.862814 0.868015 0.873215 0.878414 0.883949 
0.890716 0.897484 0.896452 0.900819 0.90613 
0.911441 0.916752 0.922064 0.927376 1.14661 
1.14498 1.15029 1.15722 1.16416 1.17109 
1.17847 1.18749 1.19651 1.19513 1.20096 
1.20804 1.21512 1.2222 1.22928 1.23636 
1.43306 1.43102 1.43765 1.44632 1.45498 
1.46365 1.47287 1.48415 1.49542 1.4937 
1.50098 1.50983 1.51868 1.52753 1.53638 
1.54523 -1.44874 -1.44712 -1.45355 -1.46186 
-1.47017 -1.47848 -1.4874 -1.49858 -1.50924 
-1.50785 -1.51481 -1.52323 -1.53165 -1.54007 
-1.54849 -1.55692 -1.15916 -1.15786 -1.163 
-1.16965 -1.1763 -1.18295 -1.19009 -1.19904 
-1.20757 -1.20645 -1.21202 -1.21876 -1.2255 
-1.23224 -1.23898 -1.24571 -0.869468 -0.868493 
-0.872352 -0.87734 -0.882327 -0.887314 -0.89267 
-0.899381 -0.905777 -0.904941 -0.909119 -0.914172 
-0.919227 -0.924281 -0.929335 -0.93439 -0.579692 
-0.579042 -0.581615 -0.58494 -0.588265 -0.59159 
-0.595161 -0.599635 -0.6039 -0.603343 -0.606128 
-0.609497 -0.612867 -0.616237 -0.619607 -0.622977 
-0.28986 -0.289535 -0.290821 -0.292484 -0.294147 
-0.295809 -0.297595 -0.299832 -0.301964 -0.301686 
-0.303078 -0.304763 -0.306448 -0.308133 -0.309818 
-0.311503 0 0 0 0 
0 0 0 0 0 
0 0 0 0 0 
0 0 0.28986 0.289535 0.290821 
0.292484 0.294147 0.295809 0.297595 0.299832 
0.301964 0.301686 0.303078 0.304763 0.306448 
0.308133 0.309818 0.311503 0.579692 0.579042 
0.581615 0.58494 0.588265 0.59159 0.595161 
0.599635 0.6039 0.603343 0.606128 0.609497 
0.612867 0.616237 0.619607 0.622977 0.869468 
0.868493 0.872352 0.87734 0.882327 0.887314 
0.89267 0.899381 0.905777 0.904941 0.909119 
0.914172 0.919227 0.924281 0.929335 0.93439 
1.15916 1.15786 1.163 1.16965 1.1763 
1.18295 1.19009 1.19904 1.20757 1.20645 
1.21202 1.21876 1.2255 1.23224 1.23898 
1.24571 1.44874 1.44712 1.45355 1.46186 
1.47017 1.47848 1.4874 1.49858 1.50924 
1.50785 1.51481 1.52323 1.53165 1.54007 
1.54849 1.55692 -1.46442 -1.46322 -1.46944 
-1.4774 -1.48535 -1.49331 -1.50193 -1.51302 
-1.52306 -1.52199 -1.52864 -1.53663 -1.54462 
-1.55262 -1.56061 -1.5686 -1.17171 -1.17074 
-1.17572 -1.18209 -1.18845 -1.19482 -1.20172 
-1.21059 -1.21862 -1.21777 -1.22309 -1.22948 
-1.23588 -1.24227 -1.24867 -1.25507 -0.87888 
-0.878157 -0.88189 -0.886665 -0.891439 -0.896214 
-0.90139 -0.908045 -0.91407 -0.91343 -0.917418 
-0.922215 -0.927012 -0.93181 -0.936607 -0.941405 
-0.585967 -0.585485 -0.587974 -0.591157 -0.594341 
-0.597524 -0.600975 -0.605412 -0.609429 -0.609002 
-0.611661 -0.614859 -0.618058 -0.621256 -0.624455 
-0.627654 -0.292998 -0.292757 -0.294001 -0.295593 
-0.297185 -0.298776 -0.300502 -0.302721 -0.304729 
-0.304516 -0.305845 -0.307445 -0.309044 -0.310643 
-0.312243 -0.313842 0 0 0 
0 0 0 0 0 
0 0 0 0 0 
0 0 0 0.292998 0.292757 
0.294001 0.295593 0.297185 0.298776 0.300502 
0.302721 0.304729 0.304516 0.305845 0.307445 
0.309044 0.310643 0.312243 0.313842 0.585967 
0.585485 0.587974 0.591157 0.594341 0.597524 
0.600975 0.605412 0.609429 0.609002 0.611661 
0.614859 0.618058 0.621256 0.624455 0.627654 
0.87888 0.878157 0.88189 0.886665 0.891439 
0.896214 0.90139 0.908045 0.91407 0.91343 
0.917418 0.922215 0.927012 0.93181 0.936607 
0.941405 1.17171 1.17074 1.17572 1.18209 
1.18845 1.19482 1.20172 1.21059 1.21862 
1.21777 1.22309 1.22948 1.23588 1.24227 
1.24867 1.25507 1.46442 1.46322 1.46944 
1.4774 1.48535 1.49331 1.50193 1.51302 
1.52306 1.52199 1.52864 1.53663 1.54462 
1.55262 1.56061 1.5686 -1.48011 -1.47932 
-1.48533 -1.49293 -1.50053 -1.50813 -1.51646 
-1.52746 -1.53688 -1.53614 -1.54247 -1.55003 
-1.5576 -1.56516 -1.57273 -1.58029 -1.18426 
-1.18363 -1.18844 -1.19452 -1.2006 -1.20668 
-1.21335 -1.22214 -1.22968 -1.22909 -1.23415 
-1.2402 -1.24626 -1.25231 -1.25836 -1.26442 
-0.888292 -0.88782 -0.891427 -0.89599 -0.900552 
-0.905114 -0.910111 -0.91671 -0.922363 -0.921919 
-0.925718 -0.930258 -0.934798 -0.939338 -0.943879 
-0.94842 -0.592242 -0.591928 -0.594333 -0.597374 
-0.600416 -0.603458 -0.606789 -0.611189 -0.614958 
-0.614662 -0.617195 -0.620222 -0.623249 -0.626276 
-0.629303 -0.632331 -0.296135 -0.295978 -0.297181 
-0.298702 -0.300222 -0.301743 -0.303409 -0.305609 
-0.307494 -0.307346 -0.308612 -0.310126 -0.311639 
-0.313153 -0.314667 -0.316181 0 0 
0 0 0 0 0 
0 0 0 0 0 
0 0 0 0 0.296135 
0.295978 0.297181 0.298702 0.300222 0.301743 
0.303409 0.305609 0.307494 0.307346 0.308612 
0.310126 0.311639 0.313153 0.314667 0.316181 
0.592242 0.591928 0.594333 0.597374 0.600416 
0.603458 0.606789 0.611189 0.614958 0.614662 
0.617195 0.620222 0.623249 0.626276 0.629303 
0.632331 0.888292 0.88782 0.891427 0.89599 
0.900552 0.905114 0.910111 0.91671 0.922363 
0.921919 0.925718 0.930258 0.934798 0.939338 
0.943879 0.94842 1.18426 1.18363 1.18844 
1.19452 1.2006 1.20668 1.21335 1.22214 
1.22968 1.22909 1.23415 1.2402 1.24626 
1.25231 1.25836 1.26442 1.48011 1.47932 
1.48533 1.49293 1.50053 1.50813 1.51646 
1.52746 1.53688 1.53614 1.54247 1.55003 
1.5576 1.56516 1.57273 1.58029 -1.49579 
-1.49542 -1.50122 -1.50847 -1.51572 -1.52296 
-1.53099 -1.54189 -1.55069 -1.55028 -1.55629 
-1.56343 -1.57057 -1.57771 -1.58484 -1.59198 
-1.1968 -1.19651 -1.20115 -1.20695 -1.21275 
-1.21855 -1.22497 -1.23369 -1.24074 -1.2404 
-1.24522 -1.25093 -1.25664 -1.26235 -1.26806 
-1.27377 -0.897704 -0.897484 -0.900965 -0.905315 
-0.909664 -0.914013 -0.918831 -0.925375 -0.930656 
-0.930409 -0.934017 -0.9383 -0.942584 -0.946867 
-0.951151 -0.955435 -0.598518 -0.598371 -0.600692 
-0.603592 -0.606492 -0.609391 -0.612603 -0.616966 
-0.620487 -0.620322 -0.622728 -0.625584 -0.62844 
-0.631295 -0.634151 -0.637007 -0.299273 -0.2992 
-0.30036 -0.30181 -0.30326 -0.30471 -0.306316 
-0.308498 -0.310258 -0.310176 -0.311379 -0.312807 
-0.314235 -0.315663 -0.317091 -0.318519 0 
0 0 0 0 0 
0 0 0 0 0 
0 0 0 0 0 
0.299273 0.2992 0.30036 0.30181 0.30326 
0.30471 0.306316 0.308498 0.310258 0.310176 
0.311379 0.312807 0.314235 0.315663 0.317091 
0.318519 0.598518 0.598371 0.600692 0.603592 
0.606492 0.609391 0.612603 0.616966 0.620487 
0.620322 0.622728 0.625584 0.62844 0.631295 
0.634151 0.637007 0.897704 0.897484 0.900965 
0.905315 0.909664 0.914013 0.918831 0.925375 
0.930656 0.930409 0.934017 0.9383 0.942584 
0.946867 0.951151 0.955435 1.1968 1.19651 
1.20115 1.20695 1.21275 1.21855 1.22497 
1.23369 1.24074 1.2404 1.24522 1.25093 
1.25664 1.26235 1.26806 1.27377 1.49579 
1.49542 1.50122 1.50847 1.51572 1.52296 
1.53099 1.54189 1.55069 1.55028 1.55629 
1.56343 1.57057 1.57771 1.58484 1.59198 
-1.51147 -1.51152 -1.51711 -1.52401 -1.5309 
-1.53779 -1.54552 -1.55633 -1.56451 -1.56443 
-1.57012 -1.57683 -1.58354 -1.59025 -1.59696 
-1.60367 -1.20935 -1.20939 -1.21387 -1.21938 
-1.2249 -1.23041 -1.2366 -1.24524 -1.25179 
-1.25172 -1.25628 -1.26165 -1.26702 -1.27238 
-1.27775 -1.28312 -0.907116 -0.907148 -0.910503 
-0.91464 -0.918777 -0.922913 -0.927552 -0.934039 
-0.938949 -0.938898 -0.942317 -0.946343 -0.950369 
-0.954396 -0.958422 -0.962449 -0.604793 -0.604814 
-0.607051 -0.609809 -0.612567 -0.615325 -0.618418 
-0.622743 -0.626016 -0.625982 -0.628262 -0.630946 
-0.63363 -0.636315 -0.639 -0.641684 -0.302411 
-0.302421 -0.30354 -0.304919 -0.306298 -0.307677 
-0.309224 -0.311386 -0.313023 -0.313006 -0.314146 
-0.315488 -0.31683 -0.318173 -0.319515 -0.320858 
0 0 0 0 0 
0 0 0 0 0 
0 0 0 0 0 
0 0.302411 0.302421 0.30354 0.304919 
0.306298 0.307677 0.309224 0.311386 0.313023 
0.313006 0.314146 0.315488 0.31683 0.318173 
0.319515 0.320858 0.604793 0.604814 0.607051 
0.609809 0.612567 0.615325 0.618418 0.622743 
0.626016 0.625982 0.628262 0.630946 0.63363 
0.636315 0.639 0.641684 0.907116 0.907148 
0.910503 0.91464 0.918777 0.922913 0.927552 
0.934039 0.938949 0.938898 0.942317 0.946343 
0.950369 0.954396 0.958422 0.962449 1.20935 
1.20939 1.21387 1.21938 1.2249 1.23041 
1.2366 1.24524 1.25179 1.25172 1.25628 
1.26165 1.26702 1.27238 1.27775 1.28312 
1.51147 1.51152 1.51711 1.52401 1.5309 
1.53779 1.54552 1.55633 1.56451 1.56443 
1.57012 1.57683 1.58354 1.59025 1.59696 
1.60367 -1.52716 -1.52763 -1.53301 -1.53955 
-1.54608 -1.55262 -1.56005 -1.57077 -1.57833 
-1.57857 -1.58395 -1.59023 -1.59651 -1.6028 
-1.60908 -1.61536 -1.2219 -1.22228 -1.22658 
-1.23181 -1.23705 -1.24228 -1.24822 -1.2568 
-1.26285 -1.26304 -1.26735 -1.27237 -1.2774 
-1.28242 -1.28745 -1.29247 -0.916529 -0.916811 
-0.920041 -0.923965 -0.927889 -0.931813 -0.936272 
-0.942704 -0.947242 -0.947387 -0.950616 -0.954386 
-0.958155 -0.961924 -0.965694 -0.969464 -0.611068 
-0.611256 -0.61341 -0.616026 -0.618642 -0.621258 
-0.624232 -0.62852 -0.631545 -0.631642 -0.633795 
-0.636308 -0.638821 -0.641334 -0.643848 -0.646361 
-0.305549 -0.305643 -0.30672 -0.308028 -0.309336 
-0.310644 -0.312131 -0.314275 -0.315788 -0.315836 
-0.316913 -0.318169 -0.319426 -0.320683 -0.321939 
-0.323196 0 0 0 0 
0 0 0 0 0 
0 0 0 0 0 
0 0 0.305549 0.305643 0.30672 
0.308028 0.309336 0.310644 0.312131 0.314275 
0.315788 0.315836 0.316913 0.318169 0.319426 
0.320683 0.321939 0.323196 0.611068 0.611256 
0.61341 0.616026 0.618642 0.621258 0.624232 
0.62852 0.631545 0.631642 0.633795 0.636308 
0.638821 0.641334 0.643848 0.646361 0.916529 
0.916811 0.920041 0.923965 0.927889 0.931813 
0.936272 0.942704 0.947242 0.947387 0.950616 
0.954386 0.958155 0.961924 0.965694 0.969464 
1.2219 1.22228 1.22658 1.23181 1.23705 
1.24228 1.24822 1.2568 1.26285 1.26304 
1.26735 1.27237 1.2774 1.28242 1.28745 
1.29247 1.52716 1.52763 1.53301 1.53955 
1.54608 1.55262 1.56005 1.57077 1.57833 
1.57857 1.58395 1.59023 1.59651 1.6028 
1.60908 1.61536 -1.54284 -1.54373 -1.5489 
-1.55508 -1.56127 -1.56745 -1.57458 -1.58521 
-1.59215 -1.59272 -1.59778 -1.60363 -1.60949 
-1.61534 -1.62119 -1.62705 -1.23445 -1.23516 
-1.2393 -1.24425 -1.24919 -1.25414 -1.25985 
-1.26835 -1.2739 -1.27436 -1.27841 -1.28309 
-1.28778 -1.29246 -1.29714 -1.30183 -0.925941 
-0.926475 -0.929578 -0.93329 -0.937001 -0.940713 
-0.944993 -0.951368 -0.955535 -0.955876 -0.958916 
-0.962428 -0.96594 -0.969453 -0.972966 -0.976479 
-0.617343 -0.617699 -0.619769 -0.622243 -0.624718 
-0.627192 -0.630046 -0.634297 -0.637074 -0.637302 
-0.639329 -0.64167 -0.644012 -0.646354 -0.648696 
-0.651038 -0.308686 -0.308865 -0.309899 -0.311137 
-0.312374 -0.313611 -0.315038 -0.317164 -0.318552 
-0.318666 -0.31968 -0.320851 -0.322022 -0.323193 
-0.324364 -0.325535 0 0 0 
0 0 0 0 0 
0 0 0 0 0 
0 0 0 0.308686 0.308865 
0.309899 0.311137 0.312374 0.313611 0.315038 
0.317164 0.318552 0.318666 0.31968 0.320851 
0.322022 0.323193 0.324364 0.325535 0.617343 
0.617699 0.619769 0.622243 0.624718 0.627192 
0.630046 0.634297 0.637074 0.637302 0.639329 
0.64167 0.644012 0.646354 0.648696 0.651038 
0.925941 0.926475 0.929578 0.93329 0.937001 
0.940713 0.944993 0.951368 0.955535 0.955876 
0.958916 0.962428 0.96594 0.969453 0.972966 
0.976479 1.23445 1.23516 1.2393 1.24425 
1.24919 1.25414 1.25985 1.26835 1.2739 
1.27436 1.27841 1.28309 1.28778 1.29246 
1.29714 1.30183 1.54284 1.54373 1.5489 
1.55508 1.56127 1.56745 1.57458 1.58521 
1.59215 1.59272 1.59778 1.60363 1.60949 
1.61534 1.62119 1.62705 28.9572 29.1175 29.2796 29.4433 29.6083 29.7744 
29.9415 30.1092 30.2773 30.4454 30.6129 
30.7792 30.9435 31.1053 31.2639 31.4192 
28.9692 29.1294 29.2915 29.4551 29.62 
29.786 29.953 30.1207 30.2887 30.4568 
30.6244 30.7907 30.9552 31.1172 31.2761 
31.4316 28.9786 29.1385 29.3002 29.4635 
29.6281 29.7938 29.9604 30.1277 30.2955 
30.4634 30.6308 30.7973 30.9619 31.1242 
31.2836 31.4395 28.9839 29.1434 29.3046 
29.4673 29.6313 29.7964 29.9624 30.1291 
30.2964 30.4639 30.6313 30.7978 30.9628 
31.1257 31.2857 31.4424 28.9848 29.1437 
29.3043 29.4662 29.6294 29.7936 29.9587 
30.1247 30.2913 30.4584 30.6256 30.7924 
30.958 31.1218 31.283 31.4409 28.9861 
29.1449 29.3053 29.4672 29.6303 29.7945 
29.9596 30.1257 30.2925 30.4598 30.6273 
30.7942 30.96 31.1239 31.285 31.4428 
28.9856 29.1445 29.3049 29.4668 29.6299 
29.7941 29.9592 30.1251 30.2916 30.4587 
30.6259 30.7926 30.9582 31.122 31.2831 
31.4409 28.9856 29.1449 29.306 29.4686 
29.6324 29.7974 29.9632 30.1299 30.2971 
30.4645 30.6318 30.7982 30.9632 31.126 
31.2859 31.4426 28.9812 29.1409 29.3024 
29.4655 29.6299 29.7953 29.9618 30.1289 
30.2965 30.4643 30.6316 30.7979 30.9625 
31.1247 31.284 31.4398 28.9729 29.1328 
29.2946 29.4579 29.6225 29.7883 29.955 
30.1224 30.2903 30.4581 30.6255 30.7917 
30.956 31.1179 31.2766 31.432 28.9608 
29.1208 29.2826 29.446 29.6107 29.7766 
29.9433 30.1108 30.2787 30.4466 30.6139 
30.78 30.9442 31.1059 31.2644 31.4196 
29.2748 29.4313 29.5893 29.7486 29.9088 
30.0698 30.2315 30.3935 30.5555 30.7171 
30.8779 31.0373 31.1948 31.3499 31.5021 
31.6513 29.2869 29.4434 29.6013 29.7605 
29.9207 30.0817 30.2433 30.4053 30.5673 
30.7289 30.8898 31.0493 31.2069 31.3622 
31.5147 31.664 29.2964 29.4526 29.6103 
29.7692 29.9291 30.0898 30.2512 30.4129 
30.5747 30.7362 30.897 31.0566 31.2144 
31.3699 31.5227 31.6725 29.3019 29.4577 
29.615 29.7734 29.9328 30.093 30.2539 
30.4151 30.5766 30.7379 30.8987 31.0583 
31.2164 31.3724 31.5257 31.6761 29.303 
29.4583 29.6149 29.7727 29.9315 30.0911 
30.2513 30.412 30.573 30.7341 30.8948 
31.0548 31.2134 31.3701 31.5243 31.6755 
29.3043 29.4595 29.6161 29.7738 29.9326 
30.0922 30.2524 30.4132 30.5744 30.7356 
30.8966 31.0567 31.2154 31.3721 31.5263 
31.6775 29.3037 29.459 29.6156 29.7733 
29.932 30.0915 30.2517 30.4124 30.5733 
30.7344 30.895 31.055 31.2135 31.3702 
31.5244 31.6756 29.3034 29.4591 29.6163 
29.7746 29.9339 30.094 30.2547 30.4159 
30.5772 30.7385 30.8991 31.0587 31.2168 
31.3727 31.526 31.6763 29.2988 29.4549 
29.6124 29.7711 29.9308 30.0914 30.2525 
30.414 30.5757 30.7371 30.8977 31.0572 
31.2149 31.3704 31.5231 31.6728 29.2904 
29.4466 29.6043 29.7632 29.9231 30.0839 
30.2452 30.407 30.5687 30.7302 30.8908 
31.0502 31.2077 31.3628 31.5152 31.6645 
29.2782 29.4345 29.5922 29.7511 29.9111 
30.0719 30.2333 30.395 30.5568 30.7183 
30.8789 31.0381 31.1955 31.3504 31.5026 
31.6517 29.5887 29.7416 29.8955 30.0504 
30.2059 30.362 30.5183 30.6747 30.8307 
30.9862 31.1406 31.2935 31.4446 31.5933 
31.7395 31.8828 29.601 29.7538 29.9078 
30.0626 30.2181 30.3741 30.5304 30.6868 
30.8429 30.9984 31.1528 31.3059 31.457 
31.606 31.7523 31.8958 29.6106 29.7632 
29.9169 30.0715 30.2268 30.3826 30.5387 
30.6949 30.8508 31.0063 31.1607 31.3138 
31.4651 31.6143 31.7609 31.9047 29.6162 
29.7685 29.9219 30.0761 30.231 30.3864 
30.5421 30.698 30.8537 31.009 31.1634 
31.3166 31.4682 31.6177 31.7647 31.9089 
29.6176 29.7694 29.9223 30.076 30.2304 
30.3853 30.5406 30.696 30.8515 31.0066 
31.1611 31.3146 31.4665 31.6166 31.7642 
31.9092 29.6189 29.7707 29.9236 30.0772 
30.2316 30.3865 30.5419 30.6974 30.853 
31.0083 31.1629 31.3165 31.4686 31.6186 
31.7663 31.9112 29.6183 29.7701 29.9229 
30.0765 30.2309 30.3857 30.5409 30.6964 
30.8518 31.0069 31.1613 31.3147 31.4667 
31.6167 31.7643 31.9093 29.6177 29.7699 
29.9231 30.0772 30.232 30.3873 30.5429 
30.6987 30.8543 31.0095 31.1639 31.317 
31.4685 31.6179 31.7649 31.9091 29.6129 
29.7654 29.9189 30.0733 30.2284 30.3841 
30.54 30.696 30.8518 31.0071 31.1614 
31.3144 31.4656 31.6147 31.7612 31.905 
29.6043 29.7569 29.9106 30.0651 30.2204 
30.3762 30.5323 30.6884 30.8443 30.9995 
31.1538 31.3067 31.4578 31.6066 31.7528 
31.8962 29.5919 29.7446 29.8983 30.0528 
30.2081 30.364 30.52 30.6762 30.832 
30.9873 31.1415 31.2943 31.4452 31.5939 
31.7399 31.8832 29.8997 30.0489 30.1989 
30.3494 30.5003 30.6515 30.8026 30.9534 
31.1037 31.2532 31.4015 31.5482 31.6931 
31.8358 31.9761 32.1137 29.9121 30.0613 
30.2113 30.3618 30.5127 30.6638 30.8149 
30.9658 31.1162 31.2657 31.4141 31.5609 
31.7059 31.8487 31.9891 32.1269 29.9219 
30.0709 30.2207 30.371 30.5218 30.6727 
30.8237 30.9744 31.1247 31.2741 31.4225 
31.5694 31.7146 31.8576 31.9982 32.1362 
29.9277 30.0765 30.226 30.376 30.5264 
30.677 30.8277 30.9782 31.1283 31.2777 
31.4261 31.5731 31.7184 31.8617 32.0026 
32.141 29.9293 30.0778 30.2269 30.3765 
30.5265 30.6768 30.8271 30.9774 31.1273 
31.2766 31.4251 31.5723 31.7179 31.8616 
32.0031 32.142 29.9308 30.0792 30.2282 
30.3778 30.5279 30.6782 30.8286 30.9789 
31.1289 31.2784 31.427 31.5743 31.72 
31.8638 32.0052 32.1441 29.93 30.0784 
30.2274 30.377 30.527 30.6772 30.8275 
30.9777 31.1276 31.2769 31.4253 31.5725 
31.7181 31.8618 32.0032 32.1421 29.9291 
30.0777 30.2271 30.377 30.5273 30.6779 
30.8285 30.9789 31.1289 31.2782 31.4265 
31.5735 31.7187 31.8619 32.0028 32.1412 
29.924 30.0729 30.2226 30.3727 30.5233 
30.6741 30.8248 30.9754 31.1256 31.2749 
31.4232 31.57 31.715 31.8579 31.9985 
32.1364 29.9152 30.0642 30.214 30.3643 
30.5149 30.6658 30.8167 30.9673 31.1175 
31.2668 31.415 31.5617 31.7066 31.8493 
31.9896 32.1273 29.9027 30.0517 30.2015 
30.3517 30.5024 30.6533 30.8042 30.9548 
31.1049 31.2542 31.4024 31.549 31.6937 
31.8363 31.9765 32.114 30.2083 30.3539 
30.4999 30.6462 30.7925 30.9388 31.0847 
31.2302 31.3749 31.5186 31.661 31.8018 
31.9407 32.0775 32.212 32.344 30.2208 
30.3665 30.5125 30.6588 30.8051 30.9514 
31.0974 31.2429 31.3877 31.5314 31.6739 
31.8147 31.9537 32.0907 32.2253 32.3575 
30.2308 30.3763 30.5222 30.6683 30.8145 
30.9606 31.1065 31.2519 31.3966 31.5403 
31.6828 31.8237 31.9629 32.0999 32.2347 
32.3671 30.2369 30.3822 30.5278 30.6736 
30.8196 30.9655 31.1112 31.2564 31.401 
31.5447 31.6872 31.8282 31.9674 32.1047 
32.2398 32.3724 30.2389 30.3839 30.5292 
30.6747 30.8204 30.966 31.1115 31.2566 
31.4011 31.5447 31.6873 31.8284 31.9679 
32.1055 32.241 32.374 30.2403 30.3853 
30.5306 30.6762 30.8218 30.9675 31.113 
31.2582 31.4028 31.5466 31.6893 31.8305 
31.9701 32.1077 32.2432 32.3762 30.2395 
30.3844 30.5297 30.6752 30.8208 30.9664 
31.1118 31.2569 31.4013 31.5449 31.6875 
31.8286 31.9681 32.1056 32.2411 32.3741 
30.2382 30.3834 30.5289 30.6746 30.8205 
30.9663 31.1119 31.257 31.4015 31.5451 
31.6876 31.8285 31.9677 32.1049 32.2399 
32.3726 30.2329 30.3782 30.5239 30.6699 
30.8159 30.9619 31.1076 31.2529 31.3974 
31.5411 31.6834 31.8243 31.9633 32.1003 
32.235 32.3673 30.2239 30.3693 30.5151 
30.6611 30.8072 30.9532 31.099 31.2443 
31.3889 31.5324 31.6747 31.8155 31.9544 
32.0912 32.2257 32.3578 30.2112 30.3566 
30.5024 30.6484 30.7945 30.9405 31.0863 
31.2315 31.376 31.5196 31.6618 31.8025 
31.9412 32.0779 32.2124 32.3443 30.5151 
30.6572 30.7992 30.9412 31.083 31.2244 
31.3653 31.5055 31.6447 31.7828 31.9194 
32.0543 32.1874 32.3185 32.4473 32.5739 
30.5278 30.6699 30.812 30.954 31.0958 
31.2373 31.3782 31.5184 31.6578 31.7959 
31.9326 32.0676 32.2008 32.3319 32.4609 
32.5876 30.538 30.6799 30.8219 30.9638 
31.1055 31.2468 31.3877 31.5279 31.6671 
31.8052 31.9419 32.077 32.2103 32.3415 
32.4706 32.5975 30.5443 30.6861 30.8278 
30.9695 31.111 31.2522 31.3929 31.533 
31.6722 31.8103 31.947 32.0821 32.2155 
32.3469 32.4762 32.6033 30.5467 30.6882 
30.8297 30.9712 31.1125 31.2535 31.3941 
31.5341 31.6732 31.8113 31.9481 32.0833 
32.2169 32.3485 32.4781 32.6054 30.5482 
30.6897 30.8312 30.9727 31.114 31.2551 
31.3957 31.5358 31.675 31.8132 31.9502 
32.0855 32.2191 32.3508 32.4803 32.6076 
30.5473 30.6887 30.8302 30.9716 31.1129 
31.2539 31.3944 31.5343 31.6735 31.8115 
31.9482 32.0835 32.217 32.3486 32.4781 
32.6055 30.5456 30.6872 30.8289 30.9705 
31.1119 31.253 31.3936 31.5336 31.6727 
31.8107 31.9473 32.0824 32.2157 32.3471 
32.4764 32.6034 30.54 30.6818 30.8236 
30.9653 31.1068 31.248 31.3887 31.5288 
31.6679 31.8059 31.9425 32.0775 32.2107 
32.3419 32.4709 32.5977 30.5308 30.6726 
30.8144 30.9562 31.0977 31.239 31.3797 
31.5198 31.6589 31.7968 31.9334 32.0683 
32.2013 32.3324 32.4613 32.5879 30.5179 
30.6597 30.8015 30.9433 31.0848 31.226 
31.3667 31.5067 31.6458 31.7837 31.9202 
32.055 32.188 32.3189 32.4477 32.5742 
30.8207 30.9591 31.0972 31.2349 31.3721 
31.5088 31.6447 31.7797 31.9136 32.0461 
32.1771 32.3062 32.4335 32.5589 32.6822 
32.8034 30.8336 30.972 31.1101 31.2479 
31.3852 31.5219 31.6579 31.7929 31.9269 
32.0595 32.1905 32.3197 32.4471 32.5725 
32.6959 32.8172 30.8439 30.9823 31.1203 
31.2579 31.3951 31.5318 31.6677 31.8027 
31.9366 32.0692 32.2002 32.3296 32.457 
32.5825 32.706 32.8274 30.8505 30.9887 
31.1266 31.2641 31.4011 31.5376 31.6735 
31.8084 31.9423 32.0749 32.2059 32.3352 
32.4628 32.5884 32.712 32.8336 30.8533 
30.9913 31.129 31.2663 31.4033 31.5397 
31.6754 31.8104 31.9442 32.0768 32.2079 
32.3372 32.4649 32.5906 32.7144 32.8363 
30.8549 30.9928 31.1305 31.2679 31.4048 
31.5413 31.6771 31.8121 31.9461 32.0788 
32.21 32.3396 32.4672 32.593 32.7168 
32.8385 30.8539 30.9918 31.1294 31.2668 
31.4036 31.54 31.6757 31.8106 31.9444 
32.077 32.208 32.3374 32.465 32.5907 
